-1.3515 -1.63532 6.78125 89 89 89
-1.34557 -1.63396 6.77564 89 89 89
-1.33744 -1.62991 6.75885 88 88 88
-1.33485 -1.63261 6.77003 75 75 75
-1.32894 -1.63126 6.76444 83 83 83
-1.32524 -1.63261 6.77003 101 101 101
-1.31716 -1.62857 6.75328 92 92 92
-1.26277 -1.60213 6.64365 37 37 37
-1.25297 -1.59566 6.61679 37 37 37
-1.24626 -1.59308 6.60611 35 35 35
-1.23857 -1.58923 6.59015 34 34 34
-1.22331 -1.58159 6.55847 28 28 28
-1.21573 -1.5778 6.54274 29 29 29
-0.798831 -1.62723 6.74771 19 19 19
-0.790782 -1.62055 6.72001 21 21 21
-0.784081 -1.61657 6.7035 26 26 26
-0.778048 -1.61392 6.69254 26 26 26
-0.773298 -1.61392 6.69254 21 21 21
-0.769177 -1.61524 6.69801 19 19 19
-0.763174 -1.6126 6.68707 27 27 27
-0.758428 -1.6126 6.68707 29 29 29
-0.753066 -1.61129 6.68161 21 21 21
-0.748935 -1.6126 6.68707 14 14 14
-0.743581 -1.61129 6.68161 19 19 19
-0.734045 -1.60083 6.63826 22 22 22
-0.689873 -1.57528 6.5323 39 39 39
-0.665485 -1.56157 6.47545 66 66 66
-0.660889 -1.56157 6.47545 71 71 71
-0.656293 -1.56157 6.47545 71 71 71
-0.651697 -1.56157 6.47545 66 66 66
-0.647101 -1.56157 6.47545 71 71 71
-7.26719 -2.28839 9.51741 122 122 122
-6.07641 -2.27254 9.45147 42 42 42
-6.0908 -2.28044 9.48432 44 44 44
-6.07 -2.27516 9.4624 49 49 49
-6.05629 -2.27254 9.45147 53 53 53
-6.03564 -2.2673 9.42969 56 56 56
-6.02895 -2.2673 9.42969 73 73 73
-6.00841 -2.26209 9.40801 95 95 95
-6.00173 -2.26209 9.40801 122 122 122
-5.98817 -2.25949 9.39721 144 144 144
-5.97464 -2.2569 9.38644 148 148 148
-5.96798 -2.2569 9.38644 132 132 132
-5.95449 -2.25431 9.37568 121 121 121
-5.94103 -2.25174 9.36496 127 127 127
-5.9276 -2.24916 9.35425 126 126 126
-5.92096 -2.24916 9.35425 117 117 117
-5.91432 -2.24916 9.35425 115 115 115
-5.90768 -2.24916 9.35425 119 119 119
-4.28472 -1.85662 7.72167 117 117 117
-4.27118 -1.85312 7.70713 117 117 117
-4.27779 -1.85837 7.72896 118 118 118
-4.28039 -1.86189 7.74359 133 133 133
-4.283 -1.86542 7.75827 109 109 109
-4.28561 -1.86896 7.773 84 84 84
-4.27604 -1.86719 7.76563 71 71 71
-4.27458 -1.86896 7.773 57 57 57
-4.28243 -1.87967 7.81755 36 36 36
-4.28917 -1.88507 7.84001 33 33 33
-4.27951 -1.88327 7.83251 30 30 30
-3.24444 -1.66077 6.90715 27 27 27
-3.24228 -1.66218 6.91298 31 31 31
-3.22647 -1.65658 6.88971 31 31 31
-3.21346 -1.65241 6.87235 31 31 31
-3.19031 -1.6455 6.84362 40 40 40
-3.1828 -1.64412 6.8379 43 43 43
-3.05962 -1.60001 6.65445 114 114 114
-3.05987 -1.60262 6.66529 115 115 115
-3.05265 -1.60132 6.65986 119 119 119
-3.05041 -1.60262 6.66529 120 120 120
-3.04816 -1.60393 6.67072 119 119 119
-3.04095 -1.60262 6.66529 119 119 119
-3.03869 -1.60393 6.67072 118 118 118
-3.03396 -1.60393 6.67072 119 119 119
-3.02429 -1.60132 6.65986 113 113 113
-3.02202 -1.60262 6.66529 116 116 116
-2.42854 -1.57064 6.5323 56 56 56
-2.43752 -1.57947 6.569 51 51 51
-2.43873 -1.58328 6.58485 45 45 45
-2.4345 -1.58967 6.61145 32 32 32
-2.42393 -1.58583 6.59547 26 26 26
-2.398 -1.5719 6.53752 25 25 25
-2.38764 -1.56814 6.52189 21 21 21
-2.38111 -1.56689 6.5167 25 25 25
-2.37186 -1.56689 6.5167 31 31 31
-2.36912 -1.56814 6.52189 30 30 30
-1.97259 -1.56939 6.52709 29 29 29
-1.96639 -1.56814 6.52189 28 28 28
-1.96489 -1.57064 6.5323 30 30 30
-1.96026 -1.57064 6.5323 35 35 35
-1.9448 -1.56939 6.52709 33 33 33
-1.94326 -1.5719 6.53752 34 34 34
-1.93862 -1.5719 6.53752 32 32 32
-1.9309 -1.56939 6.52709 27 27 27
-1.9232 -1.56689 6.5167 22 22 22
-1.90183 -1.55698 6.47545 21 21 21
-1.89724 -1.55698 6.47545 21 21 21
-1.88345 -1.55698 6.47545 28 28 28
-1.87885 -1.55698 6.47545 31 31 31
-1.87426 -1.55698 6.47545 34 34 34
-1.86966 -1.55698 6.47545 32 32 32
-1.86507 -1.55698 6.47545 31 31 31
-1.86047 -1.55698 6.47545 33 33 33
-1.85587 -1.55698 6.47545 40 40 40
-1.86307 -1.56689 6.5167 45 45 45
-1.85992 -1.56814 6.52189 48 48 48
-1.84208 -1.55698 6.47545 61 61 61
-1.84919 -1.56689 6.5167 69 69 69
-1.83289 -1.55698 6.47545 77 77 77
-1.83069 -1.56689 6.5167 91 91 91
-1.83044 -1.57064 6.5323 92 92 92
-1.82289 -1.56814 6.52189 97 97 97
-1.36565 -1.63592 6.8038 90 90 90
-1.35744 -1.63185 6.78688 68 68 68
-1.35038 -1.62915 6.77564 72 72 72
-1.34557 -1.62915 6.77564 85 85 85
-1.33744 -1.62512 6.75885 84 84 84
-1.33375 -1.62646 6.76444 83 83 83
-1.32785 -1.62512 6.75885 76 76 76
-1.32414 -1.62646 6.76444 67 67 67
-1.31716 -1.62378 6.75328 56 56 56
-1.31021 -1.6211 6.74215 47 47 47
-1.29692 -1.62244 6.74771 39 39 39
-1.26483 -1.60001 6.65445 28 28 28
-1.25297 -1.59096 6.61679 28 28 28
-1.24626 -1.58839 6.60611 26 26 26
-1.22922 -1.58455 6.59015 25 25 25
-1.37566 -1.82901 7.60685 26 26 26
-0.80362 -1.62244 6.74771 21 21 21
-0.798831 -1.62244 6.74771 22 22 22
-0.790782 -1.61578 6.72001 27 27 27
-0.784081 -1.61181 6.7035 27 27 27
-0.778685 -1.61049 6.69801 20 20 20
-0.773298 -1.60917 6.69254 21 21 21
-0.769177 -1.61049 6.69801 26 26 26
-0.763174 -1.60786 6.68707 25 25 25
-0.758428 -1.60786 6.68707 22 22 22
-0.753066 -1.60654 6.68161 25 25 25
-0.748935 -1.60786 6.68707 24 24 24
-0.742975 -1.60523 6.67616 21 21 21
-0.73345 -1.59483 6.63288 20 20 20
-0.705472 -1.57441 6.54798 36 36 36
-0.69562 -1.57315 6.54274 55 55 55
-0.690424 -1.5719 6.53752 62 62 62
-0.665485 -1.55698 6.47545 75 75 75
-0.660889 -1.55698 6.47545 90 90 90
-0.656293 -1.55698 6.47545 91 91 91
-0.651697 -1.55698 6.47545 80 80 80
-0.647101 -1.55698 6.47545 75 75 75
-0.642505 -1.55698 6.47545 73 73 73
-6.09048 -2.27107 9.47335 41 41 41
-6.09787 -2.27634 9.49533 47 47 47
-6.08407 -2.2737 9.48432 50 50 50
-6.06329 -2.26845 9.4624 50 50 50
-6.03564 -2.26061 9.42969 51 51 51
-6.02895 -2.26061 9.42969 53 53 53
-6.00841 -2.25541 9.40801 80 80 80
-5.99484 -2.25282 9.39721 108 108 108
-5.98817 -2.25282 9.39721 130 130 130
-5.97464 -2.25024 9.38644 145 145 145
-5.96114 -2.24766 9.37568 138 138 138
-5.95449 -2.24766 9.37568 137 137 137
-5.94103 -2.24509 9.36496 130 130 130
-5.9276 -2.24252 9.35425 126 126 126
-5.92096 -2.24252 9.35425 126 126 126
-5.92109 -2.24509 9.36496 126 126 126
-5.91444 -2.24509 9.36496 144 144 144
-4.28876 -1.85289 7.72896 116 116 116
-4.2752 -1.84939 7.71439 115 115 115
-4.28588 -1.85639 7.74359 110 110 110
-4.28444 -1.85815 7.75092 105 105 105
-4.28706 -1.86168 7.76563 99 99 99
-4.29377 -1.86699 7.78779 89 89 89
-4.2801 -1.86344 7.773 71 71 71
-4.29885 -1.88131 7.84753 35 35 35
-4.2974 -1.88312 7.85506 36 36 36
-4.28361 -1.87951 7.84001 41 41 41
-4.26578 -1.87412 7.81755 39 39 39
-3.24718 -1.65727 6.91298 33 33 33
-3.24228 -1.65727 6.91298 36 36 36
-3.22647 -1.65169 6.88971 37 37 37
-3.21077 -1.64615 6.86659 36 36 36
-3.19031 -1.64064 6.84362 44 44 44
-3.18014 -1.6379 6.8322 42 42 42
-3.08188 -1.60442 6.69254 105 105 105
-3.0671 -1.59919 6.67072 108 108 108
-3.06486 -1.6005 6.67616 113 113 113
-3.05514 -1.59789 6.66529 109 109 109
-3.0529 -1.59919 6.67072 105 105 105
-3.04816 -1.59919 6.67072 114 114 114
-3.04343 -1.59919 6.67072 117 117 117
-3.03869 -1.59919 6.67072 105 105 105
-3.03396 -1.59919 6.67072 112 112 112
-3.02676 -1.59789 6.66529 100 100 100
-2.42467 -1.56351 6.52189 87 87 87
-2.43166 -1.57102 6.55322 82 82 82
-2.43481 -1.57607 6.57427 69 69 69
-2.43057 -1.58243 6.60078 42 42 42
-2.42003 -1.57861 6.58485 31 31 31
-2.39417 -1.56476 6.52709 29 29 29
-2.38573 -1.56227 6.5167 28 28 28
-2.38111 -1.56227 6.5167 34 34 34
-2.37648 -1.56227 6.5167 34 34 34
-2.37186 -1.56227 6.5167 30 30 30
-1.97102 -1.56351 6.52189 29 29 29
-1.94325 -1.56351 6.52189 33 33 33
-1.94171 -1.56601 6.5323 28 28 28
-1.93553 -1.56476 6.52709 22 22 22
-1.92936 -1.56351 6.52189 21 21 21
-1.90643 -1.55238 6.47545 25 25 25
-1.90183 -1.55238 6.47545 24 24 24
-1.89724 -1.55238 6.47545 27 27 27
-1.89264 -1.55238 6.47545 29 29 29
-1.88345 -1.55238 6.47545 28 28 28
-1.87885 -1.55238 6.47545 27 27 27
-1.87426 -1.55238 6.47545 23 23 23
-1.86966 -1.55238 6.47545 24 24 24
-1.86507 -1.55238 6.47545 25 25 25
-1.86047 -1.55238 6.47545 25 25 25
-1.85587 -1.55238 6.47545 27 27 27
-1.86307 -1.56227 6.5167 33 33 33
-1.85992 -1.56351 6.52189 39 39 39
-1.84208 -1.55238 6.47545 47 47 47
-1.84919 -1.56227 6.5167 55 55 55
-1.83289 -1.55238 6.47545 62 62 62
-1.82752 -1.56351 6.52189 100 100 100
-1.37048 -1.63109 6.8038 89 89 89
-1.36339 -1.62839 6.79251 93 93 93
-1.35631 -1.62569 6.78125 81 81 81
-1.35038 -1.62434 6.77564 85 85 85
-1.34446 -1.623 6.77003 92 92 92
-1.33634 -1.61898 6.75328 71 71 71
-1.33264 -1.62032 6.75885 66 66 66
-1.32785 -1.62032 6.75885 85 85 85
-1.32414 -1.62166 6.76444 82 82 82
-1.31608 -1.61765 6.74771 85 85 85
-1.31021 -1.61632 6.74215 82 82 82
-1.30758 -1.61898 6.75328 67 67 67
-1.29692 -1.61765 6.74771 48 48 48
-1.27682 -1.60442 6.69254 38 38 38
-1.26483 -1.59529 6.65445 38 38 38
-1.25297 -1.58626 6.61679 35 35 35
-1.24626 -1.5837 6.60611 30 30 30
-1.37694 -1.82531 7.61393 24 24 24
-0.802958 -1.61632 6.74215 22 22 22
-0.798173 -1.61632 6.74215 26 26 26
-0.790133 -1.60969 6.7145 30 30 30
-0.784081 -1.60705 6.7035 25 25 25
-0.778048 -1.60442 6.69254 21 21 21
-0.773298 -1.60442 6.69254 21 21 21
-0.768548 -1.60442 6.69254 19 19 19
-0.763174 -1.60311 6.68707 24 24 24
-0.758428 -1.60311 6.68707 23 23 23
-0.753066 -1.6018 6.68161 18 18 18
-0.748324 -1.6018 6.68161 21 21 21
-0.742975 -1.6005 6.67616 27 27 27
-0.73345 -1.59012 6.63288 24 24 24
-0.707169 -1.57354 6.56373 28 28 28
-0.699146 -1.56601 6.5323 35 35 35
-0.698973 -1.57607 6.57427 37 37 37
-0.690424 -1.56726 6.53752 45 45 45
-0.660889 -1.55238 6.47545 80 80 80
-0.656293 -1.55238 6.47545 93 93 93
-0.651697 -1.55238 6.47545 80 80 80
-0.647101 -1.55238 6.47545 72 72 72
-0.642505 -1.55238 6.47545 75 75 75
-5.84773 -1.65376 6.91883 29 29 29
-5.84282 -1.65376 6.91883 28 28 28
-6.1117 -2.27224 9.50636 44 44 44
-6.10495 -2.27224 9.50636 43 43 43
-6.09113 -2.2696 9.49533 45 45 45
-6.0703 -2.26435 9.47335 51 51 51
-6.0426 -2.25651 9.44057 52 52 52
-6.02201 -2.25132 9.41884 78 78 78
-6.00841 -2.24873 9.40801 93 93 93
-5.99484 -2.24615 9.39721 105 105 105
-5.98817 -2.24615 9.39721 130 130 130
-5.97464 -2.24358 9.38644 136 136 136
-5.96114 -2.24101 9.37568 122 122 122
-5.95449 -2.24101 9.37568 127 127 127
-5.94103 -2.23844 9.36496 141 141 141
-5.93438 -2.23844 9.36496 136 136 136
-5.92096 -2.23588 9.35425 123 123 123
-5.92109 -2.23844 9.36496 125 125 125
-5.91444 -2.23844 9.36496 129 129 129
-4.29138 -1.8509 7.74359 116 116 116
-4.29808 -1.85616 7.76563 120 120 120
-4.29665 -1.85793 7.773 118 118 118
-4.30442 -1.87574 7.84753 44 44 44
-4.3154 -1.88296 7.87774 37 37 37
-4.30153 -1.87934 7.86261 34 34 34
-4.29183 -1.87754 7.85506 36 36 36
-4.26578 -1.86857 7.81755 40 40 40
-3.24993 -1.65376 6.91883 33 33 33
-3.24502 -1.65376 6.91883 38 38 38
-3.22919 -1.64819 6.89551 35 35 35
-3.21077 -1.64127 6.86659 33 33 33
-3.19031 -1.63578 6.84362 39 39 39
-3.17484 -1.63033 6.82081 42 42 42
-3.11944 -1.61419 6.75328 104 104 104
-3.08693 -1.60229 6.7035 123 123 123
-3.0696 -1.59576 6.67616 119 119 119
-3.06736 -1.59706 6.68161 117 117 117
-3.05763 -1.59446 6.67072 118 118 118
-3.05788 -1.59706 6.68161 118 118 118
-3.05065 -1.59576 6.67616 119 119 119
-3.04591 -1.59576 6.67616 118 118 118
-3.04365 -1.59706 6.68161 125 125 125
-3.03643 -1.59576 6.67616 122 122 122
-3.02922 -1.59446 6.67072 107 107 107
-2.42584 -1.56262 6.53752 51 51 51
-2.43677 -1.57267 6.57956 42 42 42
-2.43057 -1.57774 6.60078 31 31 31
-2.41809 -1.57267 6.57956 30 30 30
-2.39226 -1.55888 6.52189 28 28 28
-2.38111 -1.55764 6.5167 31 31 31
-2.37186 -1.55764 6.5167 35 35 35
-1.93862 -1.55888 6.52189 31 31 31
-1.93399 -1.55888 6.52189 31 31 31
-1.91103 -1.54778 6.47545 24 24 24
-1.90643 -1.54778 6.47545 26 26 26
-1.90183 -1.54778 6.47545 19 19 19
-1.89724 -1.54778 6.47545 22 22 22
-1.89264 -1.54778 6.47545 25 25 25
-1.88805 -1.54778 6.47545 28 28 28
-1.88345 -1.54778 6.47545 31 31 31
-1.87885 -1.54778 6.47545 32 32 32
-1.87426 -1.54778 6.47545 32 32 32
-1.86966 -1.54778 6.47545 31 31 31
-1.86507 -1.54778 6.47545 30 30 30
-1.86047 -1.54778 6.47545 35 35 35
-1.85587 -1.54778 6.47545 38 38 38
-1.85128 -1.54778 6.47545 43 43 43
-1.85844 -1.55764 6.5167 53 53 53
-1.84208 -1.54778 6.47545 63 63 63
-1.83749 -1.54778 6.47545 79 79 79
-1.83289 -1.54778 6.47545 88 88 88
-1.37048 -1.62627 6.8038 91 91 91
-1.36225 -1.62222 6.78688 93 93 93
-1.35631 -1.62088 6.78125 91 91 91
-1.35038 -1.61953 6.77564 102 102 102
-1.34446 -1.6182 6.77003 114 114 114
-1.33634 -1.61419 6.75328 105 105 105
-1.33375 -1.61686 6.76444 85 85 85
-1.32785 -1.61552 6.75885 74 74 74
-1.32414 -1.61686 6.76444 67 67 67
-1.31716 -1.61419 6.75328 60 60 60
-1.31021 -1.61153 6.74215 52 52 52
-1.30758 -1.61419 6.75328 48 48 48
-1.29692 -1.61286 6.74771 36 36 36
-1.27786 -1.60098 6.69801 34 34 34
-1.26483 -1.59057 6.65445 30 30 30
-1.25196 -1.58029 6.61145 33 33 33
-1.24626 -1.57901 6.60611 34 34 34
-0.802958 -1.61153 6.74215 17 17 17
-0.798173 -1.61153 6.74215 22 22 22
-0.790782 -1.60624 6.72001 24 24 24
-0.783439 -1.60098 6.69801 22 22 22
-0.778048 -1.59967 6.69254 21 21 21
-0.773298 -1.59967 6.69254 19 19 19
-0.768548 -1.59967 6.69254 24 24 24
-0.762551 -1.59706 6.68161 31 31 31
-0.757809 -1.59706 6.68161 24 24 24
-0.752452 -1.59576 6.67616 24 24 24
-0.748324 -1.59706 6.68161 24 24 24
-0.742975 -1.59576 6.67616 23 23 23
-0.732856 -1.58413 6.62751 29 29 29
-0.709445 -1.57393 6.58485 41 41 41
-0.701947 -1.56763 6.55847 51 51 51
-0.701226 -1.57647 6.59547 55 55 55
-0.690976 -1.56387 6.54274 57 57 57
-0.656293 -1.54778 6.47545 74 74 74
-0.651697 -1.54778 6.47545 74 74 74
-0.647101 -1.54778 6.47545 73 73 73
-0.642505 -1.54778 6.47545 69 69 69
-6.13307 -2.27341 9.53959 45 45 45
-6.11916 -2.27077 9.52849 50 50 50
-6.0982 -2.26549 9.50636 49 49 49
-6.07734 -2.26024 9.48432 54 54 54
-6.0426 -2.24981 9.44057 51 51 51
-6.02201 -2.24464 9.41884 62 62 62
-6.00841 -2.24206 9.40801 87 87 87
-5.99484 -2.23948 9.39721 114 114 114
-5.98817 -2.23948 9.39721 128 128 128
-5.97464 -2.23691 9.38644 128 128 128
-5.96798 -2.23691 9.38644 130 130 130
-5.96132 -2.23691 9.38644 126 126 126
-5.94783 -2.23435 9.37568 123 123 123
-5.93438 -2.23179 9.36496 122 122 122
-5.92773 -2.23179 9.36496 116 116 116
-5.92787 -2.23435 9.37568 124 124 124
-5.92122 -2.23435 9.37568 129 129 129
-4.31572 -1.86303 7.81755 126 126 126
-4.31842 -1.86659 7.83251 104 104 104
-4.32933 -1.88099 7.89293 43 43 43
-4.3279 -1.88281 7.90055 42 42 42
-4.30567 -1.87557 7.87017 36 36 36
-4.30008 -1.87557 7.87017 38 38 38
-4.26986 -1.86481 7.82502 38 38 38
-3.24993 -1.64885 6.91883 29 29 29
-3.24502 -1.64885 6.91883 31 31 31
-3.22919 -1.64329 6.89551 31 31 31
-3.18765 -1.62956 6.8379 44 44 44
-3.1722 -1.62414 6.81513 45 45 45
-3.17 -1.62549 6.82081 48 48 48
-3.13198 -1.61339 6.77003 73 73 73
-3.11944 -1.6094 6.75328 86 86 86
-3.10951 -1.60674 6.74215 91 91 91
-3.08693 -1.59753 6.7035 100 100 100
-3.07211 -1.59232 6.68161 128 128 128
-3.06012 -1.59102 6.67616 117 117 117
-3.05788 -1.59232 6.68161 118 118 118
-3.05065 -1.59102 6.67616 122 122 122
-3.04591 -1.59102 6.67616 129 129 129
-3.04365 -1.59232 6.68161 125 125 125
-3.03891 -1.59232 6.68161 119 119 119
-3.03169 -1.59102 6.67616 114 114 114
-2.43556 -1.56422 6.56373 70 70 70
-2.43722 -1.57432 6.60611 47 47 47
-2.43254 -1.57432 6.60611 39 39 39
-2.41809 -1.568 6.57956 30 30 30
-2.39036 -1.55302 6.5167 25 25 25
-1.93707 -1.55302 6.5167 29 29 29
-1.93245 -1.55302 6.5167 25 25 25
-1.91562 -1.54319 6.47545 21 21 21
-1.91103 -1.54319 6.47545 20 20 20
-1.90643 -1.54319 6.47545 21 21 21
-1.90183 -1.54319 6.47545 24 24 24
-1.89724 -1.54319 6.47545 28 28 28
-1.89264 -1.54319 6.47545 28 28 28
-1.88805 -1.54319 6.47545 33 33 33
-1.88345 -1.54319 6.47545 33 33 33
-1.87885 -1.54319 6.47545 32 32 32
-1.87426 -1.54319 6.47545 30 30 30
-1.86966 -1.54319 6.47545 29 29 29
-1.86507 -1.54319 6.47545 25 25 25
-1.86047 -1.54319 6.47545 23 23 23
-1.85587 -1.54319 6.47545 27 27 27
-1.85128 -1.54319 6.47545 33 33 33
-1.84668 -1.54319 6.47545 37 37 37
-1.84208 -1.54319 6.47545 48 48 48
-1.83749 -1.54319 6.47545 56 56 56
-1.83289 -1.54319 6.47545 62 62 62
-1.8237 -1.54319 6.47545 78 78 78
-1.37162 -1.62279 6.80946 107 107 107
-1.36339 -1.61875 6.79251 99 99 99
-1.35631 -1.61606 6.78125 88 88 88
-1.35038 -1.61473 6.77564 118 118 118
-1.34446 -1.61339 6.77003 140 140 140
-1.33744 -1.61073 6.75885 115 115 115
-1.33375 -1.61206 6.76444 90 90 90
-1.32785 -1.61073 6.75885 91 91 91
-1.32524 -1.61339 6.77003 85 85 85
-1.31825 -1.61073 6.75885 86 86 86
-1.31129 -1.60807 6.74771 75 75 75
-1.30866 -1.61073 6.75885 61 61 61
-1.30278 -1.6094 6.75328 53 53 53
-1.29799 -1.6094 6.75328 46 46 46
-1.28683 -1.60147 6.72001 42 42 42
-1.27996 -1.59884 6.70899 39 39 39
-1.26689 -1.58843 6.66529 32 32 32
-1.25297 -1.57687 6.61679 28 28 28
-1.24727 -1.5756 6.61145 27 27 27
-0.798831 -1.60807 6.74771 21 21 21
-0.790782 -1.60147 6.72001 23 23 23
-0.783439 -1.59623 6.69801 28 28 28
-0.778048 -1.59492 6.69254 27 27 27
-0.772667 -1.59362 6.68707 20 20 20
-0.76792 -1.59362 6.68707 16 16 16
-0.762551 -1.59232 6.68161 19 19 19
-0.757809 -1.59232 6.68161 20 20 20
-0.752452 -1.59102 6.67616 19 19 19
-0.748324 -1.59232 6.68161 22 22 22
-0.742369 -1.58972 6.67072 29 29 29
-0.732856 -1.57942 6.62751 26 26 26
-0.709445 -1.56926 6.58485 29 29 29
-0.704204 -1.568 6.57956 34 34 34
-0.700661 -1.57052 6.59015 35 35 35
-0.691529 -1.56047 6.54798 42 42 42
-0.656293 -1.54319 6.47545 73 73 73
-0.651697 -1.54319 6.47545 72 72 72
-0.647101 -1.54319 6.47545 72 72 72
-0.642505 -1.54319 6.47545 65 65 65
-6.1263 -2.26664 9.53959 48 48 48
-6.1124 -2.264 9.52849 49 49 49
-6.08439 -2.25612 9.49533 59 59 59
-6.0426 -2.24311 9.44057 65 65 65
-6.02201 -2.23795 9.41884 82 82 82
-6.00841 -2.23538 9.40801 93 93 93
-6.00173 -2.23538 9.40801 99 99 99
-5.98817 -2.23281 9.39721 118 118 118
-5.97464 -2.23025 9.38644 142 142 142
-5.96798 -2.23025 9.38644 127 127 127
-5.96132 -2.23025 9.38644 122 122 122
-5.94783 -2.2277 9.37568 125 125 125
-5.93438 -2.22515 9.36496 125 125 125
-5.92773 -2.22515 9.36496 113 113 113
-5.92787 -2.2277 9.37568 117 117 117
-5.92122 -2.2277 9.37568 126 126 126
-4.3351 -1.86103 7.83251 134 134 134
-4.3254 -1.85925 7.82502 120 120 120
-4.33643 -1.86639 7.85506 89 89 89
-4.33918 -1.86998 7.87017 75 75 75
-4.32113 -1.8646 7.84753 58 58 58
-4.34751 -1.88083 7.91583 51 51 51
-4.33351 -1.8772 7.90055 42 42 42
-4.3279 -1.8772 7.90055 36 36 36
-4.30981 -1.87178 7.87774 37 37 37
-4.30008 -1.86998 7.87017 32 32 32
-4.26986 -1.85925 7.82502 36 36 36
-3.24228 -1.64255 6.91298 36 36 36
-3.22647 -1.63702 6.88971 36 36 36
-3.20808 -1.63016 6.86083 38 38 38
-3.1925 -1.62471 6.8379 40 40 40
-3.18499 -1.62335 6.8322 40 40 40
-3.16956 -1.61795 6.80946 45 45 45
-3.16736 -1.6193 6.81513 57 57 57
-3.14941 -1.61259 6.78688 70 70 70
-3.13198 -1.60858 6.77003 98 98 98
-3.11944 -1.6046 6.75328 96 96 96
-3.11208 -1.60328 6.74771 110 110 110
-3.08946 -1.59408 6.70899 114 114 114
-3.07211 -1.58757 6.68161 98 98 98
-3.06987 -1.58887 6.68707 107 107 107
-3.06012 -1.58628 6.67616 126 126 126
-3.06038 -1.58887 6.68707 123 123 123
-3.05314 -1.58757 6.68161 119 119 119
-3.05089 -1.58887 6.68707 117 117 117
-3.04863 -1.59017 6.69254 120 120 120
-3.04139 -1.58887 6.68707 121 121 121
-3.03417 -1.58757 6.68161 119 119 119
-2.43361 -1.55832 6.55847 50 50 50
-2.43873 -1.56458 6.58485 44 44 44
-2.41615 -1.56207 6.57427 28 28 28
-2.39226 -1.54962 6.52189 28 28 28
-2.38111 -1.54839 6.5167 25 25 25
-1.93707 -1.54839 6.5167 31 31 31
-1.93245 -1.54839 6.5167 23 23 23
-1.91562 -1.53859 6.47545 23 23 23
-1.91103 -1.53859 6.47545 27 27 27
-1.90643 -1.53859 6.47545 28 28 28
-1.90183 -1.53859 6.47545 28 28 28
-1.89724 -1.53859 6.47545 29 29 29
-1.89264 -1.53859 6.47545 31 31 31
-1.88805 -1.53859 6.47545 36 36 36
-1.88345 -1.53859 6.47545 37 37 37
-1.87885 -1.53859 6.47545 36 36 36
-1.87426 -1.53859 6.47545 34 34 34
-1.86966 -1.53859 6.47545 32 32 32
-1.86507 -1.53859 6.47545 31 31 31
-1.86047 -1.53859 6.47545 32 32 32
-1.85587 -1.53859 6.47545 35 35 35
-1.85128 -1.53859 6.47545 44 44 44
-1.84668 -1.53859 6.47545 52 52 52
-1.84208 -1.53859 6.47545 63 63 63
-1.83749 -1.53859 6.47545 75 75 75
-1.83289 -1.53859 6.47545 85 85 85
-1.8283 -1.53859 6.47545 87 87 87
-1.8237 -1.53859 6.47545 108 108 108
-1.38105 -1.62335 6.8322 92 92 92
-1.37391 -1.62065 6.82081 95 95 95
-1.36452 -1.61526 6.79815 102 102 102
-1.35744 -1.61259 6.78688 99 99 99
-1.3515 -1.61125 6.78125 114 114 114
-1.34446 -1.60858 6.77003 120 120 120
-1.33855 -1.60726 6.76444 102 102 102
-1.33485 -1.60858 6.77003 81 81 81
-1.32894 -1.60726 6.76444 73 73 73
-1.32634 -1.60992 6.77564 63 63 63
-1.31934 -1.60726 6.76444 59 59 59
-1.31345 -1.60593 6.75885 51 51 51
-1.31082 -1.60858 6.77003 44 44 44
-1.30494 -1.60726 6.76444 36 36 36
-1.29906 -1.60593 6.75885 27 27 27
-1.29107 -1.60196 6.74215 22 22 22
-1.28101 -1.59539 6.7145 24 24 24
-1.26792 -1.58499 6.67072 26 26 26
-1.25399 -1.57345 6.62215 28 28 28
-1.24727 -1.5709 6.61145 30 30 30
-0.790133 -1.59539 6.7145 21 21 21
-0.782799 -1.59017 6.69254 18 18 18
-0.777413 -1.58887 6.68707 20 20 20
-0.772036 -1.58757 6.68161 22 22 22
-0.76792 -1.58887 6.68707 28 28 28
-0.761929 -1.58628 6.67616 29 29 29
-0.75719 -1.58628 6.67616 22 22 22
-0.751839 -1.58499 6.67072 26 26 26
-0.747713 -1.58628 6.67616 25 25 25
-0.741765 -1.5837 6.66529 27 27 27
-0.732263 -1.57345 6.62215 29 29 29
-0.725802 -1.56964 6.60611 26 26 26
-0.709445 -1.56458 6.58485 46 46 46
-0.704204 -1.56333 6.57956 55 55 55
-0.700661 -1.56584 6.59015 57 57 57
-0.692083 -1.55707 6.55322 58 58 58
-0.660889 -1.53859 6.47545 74 74 74
-0.656293 -1.53859 6.47545 73 73 73
-0.651697 -1.53859 6.47545 75 75 75
-0.647101 -1.53859 6.47545 78 78 78
-0.642505 -1.53859 6.47545 76 76 76
-6.15459 -2.2678 9.57307 46 46 46
-6.13345 -2.26251 9.55073 50 50 50
-6.11953 -2.25987 9.53959 51 51 51
-6.09146 -2.252 9.50636 56 56 56
-6.03564 -2.23384 9.42969 63 63 63
-6.02201 -2.23127 9.41884 78 78 78
-6.00151 -2.22614 9.39721 100 100 100
-6.00173 -2.2287 9.40801 119 119 119
-5.99505 -2.2287 9.40801 127 127 127
-5.9815 -2.22614 9.39721 136 136 136
-5.96798 -2.22359 9.38644 137 137 137
-5.96132 -2.22359 9.38644 136 136 136
-5.94783 -2.22104 9.37568 132 132 132
-5.94118 -2.22104 9.37568 131 131 131
-5.92773 -2.2185 9.36496 129 129 129
-5.93467 -2.22359 9.38644 126 126 126
-5.92122 -2.22104 9.37568 126 126 126
-4.36711 -1.86439 7.87017 135 135 135
-4.34066 -1.85547 7.83251 136 136 136
-4.35594 -1.86439 7.87017 123 123 123
-4.34201 -1.86082 7.85506 119 119 119
-4.35314 -1.86799 7.88533 124 124 124
-4.35174 -1.86979 7.89293 102 102 102
-4.33777 -1.86619 7.87774 62 62 62
-4.35313 -1.87521 7.91583 58 58 58
-4.34751 -1.87521 7.91583 52 52 52
-4.33351 -1.87159 7.90055 44 44 44
-4.33208 -1.8734 7.90819 44 44 44
-4.30981 -1.86619 7.87774 42 42 42
-4.30422 -1.86619 7.87774 36 36 36
-4.26986 -1.8537 7.82502 31 31 31
-4.2179 -1.84313 7.78039 30 30 30
-3.23681 -1.63488 6.90133 27 27 27
-3.22647 -1.63213 6.88971 30 30 30
-3.20808 -1.62529 6.86083 36 36 36
-3.19785 -1.62257 6.84935 41 41 41
-3.18765 -1.61986 6.8379 42 42 42
-3.1722 -1.61446 6.81513 43 43 43
-3.16736 -1.61446 6.81513 48 48 48
-3.13198 -1.60378 6.77003 77 77 77
-3.11944 -1.59981 6.75328 89 89 89
-3.11208 -1.59849 6.74771 96 96 96
-3.09199 -1.59062 6.7145 115 115 115
-3.07462 -1.58413 6.68707 140 140 140
-3.07238 -1.58542 6.69254 143 143 143
-3.06262 -1.58283 6.68161 121 121 121
-3.06288 -1.58542 6.69254 116 116 116
-3.05563 -1.58413 6.68707 112 112 112
-3.05338 -1.58542 6.69254 116 116 116
-3.05113 -1.58672 6.69801 119 119 119
-3.04388 -1.58542 6.69254 118 118 118
-3.03665 -1.58413 6.68707 119 119 119
-3.88012 -2.11678 8.93556 117 117 117
-3.85262 -2.11909 8.94532 120 120 120
-2.42467 -1.545 6.52189 76 76 76
-2.43752 -1.55616 6.569 70 70 70
-2.43481 -1.55741 6.57427 59 59 59
-2.43798 -1.56243 6.59547 52 52 52
-2.4333 -1.56243 6.59547 48 48 48
-2.42666 -1.56117 6.59015 45 45 45
-2.41421 -1.55616 6.569 37 37 37
-2.39226 -1.545 6.52189 29 29 29
-2.38573 -1.54377 6.5167 26 26 26
-2.38491 -1.54623 6.52709 30 30 30
-2.37648 -1.54377 6.5167 32 32 32
-2.37375 -1.545 6.52189 28 28 28
-1.91562 -1.53399 6.47545 29 29 29
-1.91103 -1.53399 6.47545 30 30 30
-1.90643 -1.53399 6.47545 31 31 31
-1.90183 -1.53399 6.47545 31 31 31
-1.89724 -1.53399 6.47545 32 32 32
-1.89264 -1.53399 6.47545 31 31 31
-1.88805 -1.53399 6.47545 30 30 30
-1.88345 -1.53399 6.47545 32 32 32
-1.87885 -1.53399 6.47545 30 30 30
-1.87426 -1.53399 6.47545 29 29 29
-1.86966 -1.53399 6.47545 30 30 30
-1.86507 -1.53399 6.47545 24 24 24
-1.86047 -1.53399 6.47545 23 23 23
-1.85587 -1.53399 6.47545 32 32 32
-1.85128 -1.53399 6.47545 37 37 37
-1.84668 -1.53399 6.47545 39 39 39
-1.84208 -1.53399 6.47545 48 48 48
-1.83749 -1.53399 6.47545 57 57 57
-1.83289 -1.53399 6.47545 65 65 65
-1.8283 -1.53399 6.47545 74 74 74
-1.8237 -1.53399 6.47545 84 84 84
-1.38105 -1.61851 6.8322 93 93 93
-1.37505 -1.61716 6.8265 107 107 107
-1.36452 -1.61044 6.79815 97 97 97
-1.35744 -1.60777 6.78688 65 65 65
-1.3515 -1.60644 6.78125 85 85 85
-1.34446 -1.60378 6.77003 101 101 101
-1.33855 -1.60245 6.76444 96 96 96
-1.33485 -1.60378 6.77003 80 80 80
-1.33004 -1.60378 6.77003 78 78 78
-1.32634 -1.60511 6.77564 78 78 78
-1.32043 -1.60378 6.77003 72 72 72
-1.31454 -1.60245 6.76444 65 65 65
-1.31191 -1.60511 6.77564 58 58 58
-1.30602 -1.60378 6.77003 50 50 50
-1.30014 -1.60245 6.76444 50 50 50
-1.2932 -1.59981 6.75328 44 44 44
-1.28417 -1.59455 6.73106 37 37 37
-1.26792 -1.58025 6.67072 33 33 33
-1.255 -1.57002 6.62751 29 29 29
-0.790133 -1.59062 6.7145 25 25 25
-0.782799 -1.58542 6.69254 26 26 26
-0.777413 -1.58413 6.68707 29 29 29
-0.772036 -1.58283 6.68161 25 25 25
-0.76792 -1.58413 6.68707 20 20 20
-0.761929 -1.58154 6.67616 24 24 24
-0.75719 -1.58154 6.67616 23 23 23
-0.751839 -1.58025 6.67072 21 21 21
-0.747104 -1.58025 6.67072 21 21 21
-0.741161 -1.57768 6.65986 28 28 28
-0.732263 -1.56875 6.62215 26 26 26
-0.725802 -1.56495 6.60611 23 23 23
-0.710588 -1.56243 6.59547 28 28 28
-0.705338 -1.56117 6.59015 35 35 35
-0.700661 -1.56117 6.59015 36 36 36
-0.693193 -1.55491 6.56373 46 46 46
-0.660889 -1.53399 6.47545 68 68 68
-0.656293 -1.53399 6.47545 67 67 67
-0.651697 -1.53399 6.47545 69 69 69
-0.647101 -1.53399 6.47545 67 67 67
-0.642505 -1.53399 6.47545 68 68 68
-0.637909 -1.53399 6.47545 69 69 69
-0.660977 -2.00929 8.48184 74 74 74
-0.655636 -2.01138 8.49063 73 73 73
-6.15459 -2.26101 9.57307 42 42 42
-6.09854 -2.24786 9.51741 63 63 63
-6.03564 -2.22714 9.42969 57 57 57
-6.02201 -2.22458 9.41884 73 73 73
-6.00151 -2.21947 9.39721 95 95 95
-6.00173 -2.22202 9.40801 104 104 104
-5.99505 -2.22202 9.40801 127 127 127
-5.98838 -2.22202 9.40801 151 151 151
-5.97483 -2.21947 9.39721 137 137 137
-5.96816 -2.21947 9.39721 123 123 123
-5.95465 -2.21693 9.38644 123 123 123
-5.94118 -2.21439 9.37568 124 124 124
-5.93452 -2.21439 9.37568 117 117 117
-5.93467 -2.21693 9.38644 123 123 123
-5.92801 -2.21693 9.38644 127 127 127
-4.36715 -1.86598 7.90055 108 108 108
-4.36576 -1.86779 7.90819 84 84 84
-4.36015 -1.86779 7.90819 77 77 77
-4.35453 -1.86779 7.90819 60 60 60
-4.35593 -1.87322 7.93117 50 50 50
-4.34189 -1.86959 7.91583 44 44 44
-4.33627 -1.86959 7.91583 42 42 42
-4.31396 -1.86239 7.88533 41 41 41
-4.30837 -1.86239 7.88533 35 35 35
-4.26986 -1.84815 7.82502 31 31 31
-3.23681 -1.62998 6.90133 33 33 33
-3.22376 -1.62587 6.88391 36 36 36
-3.20808 -1.62042 6.86083 41 41 41
-3.20321 -1.62042 6.86083 40 40 40
-3.19298 -1.61771 6.84935 44 44 44
-3.18014 -1.61366 6.8322 48 48 48
-3.17529 -1.61366 6.8322 53 53 53
-3.14941 -1.60295 6.78688 67 67 67
-3.13198 -1.59897 6.77003 100 100 100
-3.11944 -1.59502 6.75328 106 106 106
-3.11208 -1.5937 6.74771 131 131 131
-3.09453 -1.58716 6.72001 133 133 133
-3.07713 -1.58067 6.69254 116 116 116
-3.0749 -1.58196 6.69801 119 119 119
-3.06512 -1.57938 6.68707 141 141 141
-3.06539 -1.58196 6.69801 139 139 139
-3.05813 -1.58067 6.69254 121 121 121
-3.05588 -1.58196 6.69801 113 113 113
-3.05362 -1.58326 6.7035 113 113 113
-3.04637 -1.58196 6.69801 123 123 123
-3.03913 -1.58067 6.69254 132 132 132
-3.88012 -2.11044 8.93556 121 121 121
-3.85262 -2.11274 8.94532 127 127 127
-2.43827 -1.54901 6.55847 54 54 54
-2.43948 -1.55274 6.57427 47 47 47
-2.43677 -1.55399 6.57956 40 40 40
-2.43994 -1.559 6.60078 40 40 40
-2.4333 -1.55774 6.59547 36 36 36
-2.42666 -1.55649 6.59015 32 32 32
-2.41421 -1.55149 6.569 29 29 29
-2.39226 -1.54037 6.52189 31 31 31
-2.38573 -1.53914 6.5167 34 34 34
-2.38491 -1.54159 6.52709 29 29 29
-2.37838 -1.54037 6.52189 24 24 24
-2.37375 -1.54037 6.52189 29 29 29
-1.91562 -1.5294 6.47545 22 22 22
-1.91103 -1.5294 6.47545 26 26 26
-1.90643 -1.5294 6.47545 30 30 30
-1.90183 -1.5294 6.47545 33 33 33
-1.89724 -1.5294 6.47545 33 33 33
-1.89264 -1.5294 6.47545 33 33 33
-1.88805 -1.5294 6.47545 38 38 38
-1.88345 -1.5294 6.47545 35 35 35
-1.87885 -1.5294 6.47545 34 34 34
-1.87426 -1.5294 6.47545 34 34 34
-1.86966 -1.5294 6.47545 32 32 32
-1.86507 -1.5294 6.47545 27 27 27
-1.86047 -1.5294 6.47545 30 30 30
-1.85587 -1.5294 6.47545 37 37 37
-1.85128 -1.5294 6.47545 44 44 44
-1.84668 -1.5294 6.47545 57 57 57
-1.84208 -1.5294 6.47545 69 69 69
-1.83749 -1.5294 6.47545 77 77 77
-1.83289 -1.5294 6.47545 87 87 87
-1.8283 -1.5294 6.47545 95 95 95
-1.8237 -1.5294 6.47545 111 111 111
-1.36339 -1.60428 6.79251 69 69 69
-1.35631 -1.60162 6.78125 61 61 61
-1.35038 -1.6003 6.77564 73 73 73
-1.34446 -1.59897 6.77003 86 86 86
-1.33744 -1.59633 6.75885 84 84 84
-1.33485 -1.59897 6.77003 79 79 79
-1.32894 -1.59765 6.76444 70 70 70
-1.32634 -1.6003 6.77564 60 60 60
-1.31934 -1.59765 6.76444 55 55 55
-1.31237 -1.59502 6.75328 44 44 44
-1.31082 -1.59897 6.77003 37 37 37
-1.30602 -1.59897 6.77003 37 37 37
-1.30014 -1.59765 6.76444 30 30 30
-1.29427 -1.59633 6.75885 24 24 24
-1.28522 -1.59108 6.7366 27 27 27
-1.26792 -1.57552 6.67072 27 27 27
-1.25399 -1.56405 6.62215 29 29 29
-0.798831 -1.5937 6.74771 23 23 23
-0.790133 -1.58586 6.7145 18 18 18
-0.782799 -1.58067 6.69254 19 19 19
-0.778048 -1.58067 6.69254 21 21 21
-0.772667 -1.57938 6.68707 22 22 22
-0.76792 -1.57938 6.68707 21 21 21
-0.761929 -1.5768 6.67616 20 20 20
-0.75719 -1.5768 6.67616 21 21 21
-0.751226 -1.57423 6.66529 27 27 27
-0.746496 -1.57423 6.66529 27 27 27
-0.740559 -1.57167 6.65445 25 25 25
-0.731671 -1.56278 6.61679 25 25 25
-0.719371 -1.55649 6.59015 30 30 30
-0.709445 -1.55524 6.58485 47 47 47
-0.704204 -1.55399 6.57956 55 55 55
-0.700097 -1.55524 6.58485 57 57 57
-0.692083 -1.54777 6.55322 63 63 63
-0.660889 -1.5294 6.47545 72 72 72
-0.656293 -1.5294 6.47545 69 69 69
-0.651697 -1.5294 6.47545 70 70 70
-0.647101 -1.5294 6.47545 73 73 73
-0.642505 -1.5294 6.47545 79 79 79
-0.637909 -1.5294 6.47545 75 75 75
-0.660977 -2.00327 8.48184 73 73 73
-0.654957 -2.00327 8.48184 77 77 77
-0.648936 -2.00327 8.48184 76 76 76
-0.643583 -2.00535 8.49063 72 72 72
-6.1686 -2.25685 9.58428 39 39 39
-6.16179 -2.25685 9.58428 41 41 41
-6.14779 -2.25421 9.57307 47 47 47
-6.09854 -2.24111 9.51741 56 56 56
-6.03564 -2.22045 9.42969 55 55 55
-6.02201 -2.21789 9.41884 62 62 62
-6.00151 -2.2128 9.39721 96 96 96
-6.00864 -2.21789 9.41884 112 112 112
-6.00195 -2.21789 9.41884 115 115 115
-5.98838 -2.21535 9.40801 122 122 122
-5.97483 -2.2128 9.39721 120 120 120
-5.96816 -2.2128 9.39721 123 123 123
-5.95465 -2.21026 9.38644 124 124 124
-5.94799 -2.21026 9.38644 127 127 127
-5.94133 -2.21026 9.38644 126 126 126
-5.94148 -2.2128 9.39721 124 124 124
-4.37137 -1.86217 7.90819 126 126 126
-4.36998 -1.86398 7.91583 103 103 103
-4.36436 -1.86398 7.91583 81 81 81
-4.35875 -1.86398 7.91583 62 62 62
-4.36016 -1.8694 7.93887 47 47 47
-4.34609 -1.86578 7.9235 41 41 41
-4.34467 -1.86759 7.93117 42 42 42
-4.31812 -1.85858 7.89293 39 39 39
-4.31252 -1.85858 7.89293 39 39 39
-4.26986 -1.84259 7.82502 38 38 38
-3.24171 -1.62508 6.90133 32 32 32
-3.23408 -1.62372 6.89551 35 35 35
-3.22105 -1.61962 6.87813 35 35 35
-3.20539 -1.6142 6.85509 35 35 35
-3.20321 -1.61555 6.86083 35 35 35
-3.19298 -1.61285 6.84935 38 38 38
-3.17749 -1.60746 6.8265 42 42 42
-3.17264 -1.60746 6.8265 50 50 50
-3.15202 -1.59946 6.79251 59 59 59
-3.14199 -1.59681 6.78125 69 69 69
-3.13458 -1.59549 6.77564 77 77 77
-3.11944 -1.59022 6.75328 87 87 87
-3.11208 -1.58891 6.74771 98 98 98
-3.09453 -1.58239 6.72001 121 121 121
-3.07713 -1.57592 6.69254 122 122 122
-3.0749 -1.57721 6.69801 127 127 127
-3.06512 -1.57463 6.68707 121 121 121
-3.06539 -1.57721 6.69801 110 110 110
-3.05813 -1.57592 6.69254 105 105 105
-3.05838 -1.5785 6.7035 114 114 114
-3.05362 -1.5785 6.7035 120 120 120
-3.04637 -1.57721 6.69801 122 122 122
-2.43948 -1.54807 6.57427 62 62 62
-2.43873 -1.55056 6.58485 56 56 56
-2.4333 -1.55306 6.59547 41 41 41
-2.42666 -1.55181 6.59015 41 41 41
-2.41227 -1.54559 6.56373 37 37 37
-2.39226 -1.53574 6.52189 33 33 33
-2.38573 -1.53451 6.5167 33 33 33
-2.38491 -1.53696 6.52709 36 36 36
-2.37838 -1.53574 6.52189 34 34 34
-2.37375 -1.53574 6.52189 30 30 30
-1.91562 -1.5248 6.47545 27 27 27
-1.91103 -1.5248 6.47545 28 28 28
-1.90643 -1.5248 6.47545 29 29 29
-1.90183 -1.5248 6.47545 27 27 27
-1.89724 -1.5248 6.47545 27 27 27
-1.89264 -1.5248 6.47545 30 30 30
-1.88805 -1.5248 6.47545 32 32 32
-1.88345 -1.5248 6.47545 29 29 29
-1.87885 -1.5248 6.47545 30 30 30
-1.87426 -1.5248 6.47545 33 33 33
-1.86966 -1.5248 6.47545 34 34 34
-1.86507 -1.5248 6.47545 29 29 29
-1.86047 -1.5248 6.47545 29 29 29
-1.85587 -1.5248 6.47545 29 29 29
-1.85128 -1.5248 6.47545 35 35 35
-1.84668 -1.5248 6.47545 42 42 42
-1.84208 -1.5248 6.47545 49 49 49
-1.83749 -1.5248 6.47545 59 59 59
-1.83289 -1.5248 6.47545 70 70 70
-1.36113 -1.59681 6.78125 94 94 94
-1.35407 -1.59417 6.77003 71 71 71
-1.34926 -1.59417 6.77003 80 80 80
-1.34224 -1.59154 6.75885 87 87 87
-1.33634 -1.59022 6.75328 94 94 94
-1.33375 -1.59285 6.76444 95 95 95
-1.32785 -1.59154 6.75885 88 88 88
-1.32524 -1.59417 6.77003 80 80 80
-1.31825 -1.59154 6.75885 71 71 71
-1.31129 -1.58891 6.74771 69 69 69
-1.30974 -1.59285 6.76444 64 64 64
-1.30494 -1.59285 6.76444 51 51 51
-1.29906 -1.59154 6.75885 43 43 43
-1.29427 -1.59154 6.75885 35 35 35
-1.28522 -1.5863 6.7366 31 31 31
-1.26792 -1.57078 6.67072 29 29 29
-1.25196 -1.55683 6.61145 32 32 32
-0.790133 -1.58109 6.7145 25 25 25
-0.782799 -1.57592 6.69254 23 23 23
-0.777413 -1.57463 6.68707 21 21 21
-0.772036 -1.57335 6.68161 19 19 19
-0.767293 -1.57335 6.68161 17 17 17
-0.761929 -1.57206 6.67616 19 19 19
-0.756573 -1.57078 6.67072 21 21 21
-0.751226 -1.5695 6.66529 26 26 26
-0.745888 -1.56823 6.65986 30 30 30
-0.739356 -1.56441 6.64365 28 28 28
-0.73108 -1.55683 6.61145 22 22 22
-0.724632 -1.55306 6.59547 21 21 21
-0.718214 -1.54932 6.57956 19 19 19
-0.714693 -1.55181 6.59015 20 20 20
-0.707169 -1.54559 6.56373 27 27 27
-0.700264 -1.54065 6.54274 34 34 34
-0.696177 -1.54188 6.54798 43 43 43
-0.689323 -1.53696 6.52709 52 52 52
-0.670081 -1.5248 6.47545 63 63 63
-0.665485 -1.5248 6.47545 69 69 69
-0.660889 -1.5248 6.47545 78 78 78
-0.656293 -1.5248 6.47545 81 81 81
-0.651697 -1.5248 6.47545 72 72 72
-0.647101 -1.5248 6.47545 68 68 68
-0.642505 -1.5248 6.47545 69 69 69
-0.637909 -1.5248 6.47545 72 72 72
-0.654957 -1.99725 8.48184 65 65 65
-5.83786 -1.62155 6.90715 34 34 34
-6.17583 -2.25269 9.59551 39 39 39
-6.16179 -2.25005 9.58428 42 42 42
-6.14779 -2.24742 9.57307 45 45 45
-6.10564 -2.23695 9.52849 58 58 58
-6.03564 -2.21376 9.42969 46 46 46
-6.02201 -2.21121 9.41884 79 79 79
-6.00841 -2.20867 9.40801 116 116 116
-6.00864 -2.21121 9.41884 134 134 134
-6.00887 -2.21376 9.42969 138 138 138
-5.99527 -2.21121 9.41884 141 141 141
-5.9817 -2.20867 9.40801 133 133 133
-5.97502 -2.20867 9.40801 130 130 130
-5.96149 -2.20613 9.39721 129 129 129
-5.95482 -2.20613 9.39721 128 128 128
-5.94815 -2.20613 9.39721 117 117 117
-5.95516 -2.21121 9.41884 116 116 116
-4.37428 -1.86739 7.9543 49 49 49
-4.36863 -1.86739 7.9543 47 47 47
-4.35452 -1.86376 7.93887 48 48 48
-4.34889 -1.86376 7.93887 43 43 43
-4.32647 -1.85656 7.90819 41 41 41
-3.24171 -1.62019 6.90133 28 28 28
-3.23408 -1.61882 6.89551 29 29 29
-3.22105 -1.61474 6.87813 36 36 36
-3.20808 -1.61068 6.86083 42 42 42
-3.20321 -1.61068 6.86083 42 42 42
-3.19031 -1.60664 6.84362 46 46 46
-3.18014 -1.60396 6.8322 49 49 49
-3.17264 -1.60262 6.8265 52 52 52
-3.15464 -1.59596 6.79815 58 58 58
-3.14459 -1.59332 6.78688 78 78 78
-3.13458 -1.59068 6.77564 93 93 93
-3.12201 -1.58674 6.75885 108 108 108
-3.11722 -1.58674 6.75885 122 122 122
-3.09962 -1.58021 6.73106 119 119 119
-3.08217 -1.57374 6.7035 114 114 114
-3.07741 -1.57374 6.7035 115 115 115
-3.06763 -1.57117 6.69254 116 116 116
-3.0679 -1.57374 6.7035 118 118 118
-3.05813 -1.57117 6.69254 115 115 115
-3.05838 -1.57374 6.7035 99 99 99
-3.05362 -1.57374 6.7035 89 89 89
-3.04637 -1.57246 6.69801 114 114 114
-2.45005 -1.54713 6.59015 57 57 57
-2.43948 -1.54341 6.57427 51 51 51
-2.43873 -1.54589 6.58485 44 44 44
-2.43134 -1.54713 6.59015 36 36 36
-2.42471 -1.54589 6.58485 34 34 34
-2.40841 -1.53846 6.55322 27 27 27
-2.39036 -1.52989 6.5167 30 30 30
-2.37064 -1.52021 6.47545 31 31 31
-2.38301 -1.53111 6.52189 27 27 27
-2.37648 -1.52989 6.5167 26 26 26
-1.90643 -1.52021 6.47545 25 25 25
-1.90183 -1.52021 6.47545 28 28 28
-1.89724 -1.52021 6.47545 29 29 29
-1.89264 -1.52021 6.47545 30 30 30
-1.88805 -1.52021 6.47545 32 32 32
-1.88345 -1.52021 6.47545 29 29 29
-1.87885 -1.52021 6.47545 32 32 32
-1.87426 -1.52021 6.47545 34 34 34
-1.86966 -1.52021 6.47545 31 31 31
-1.86507 -1.52021 6.47545 29 29 29
-1.86047 -1.52021 6.47545 32 32 32
-1.85587 -1.52021 6.47545 37 37 37
-1.85128 -1.52021 6.47545 47 47 47
-1.84668 -1.52021 6.47545 58 58 58
-1.84208 -1.52021 6.47545 70 70 70
-1.83749 -1.52021 6.47545 77 77 77
-1.83289 -1.52021 6.47545 83 83 83
-1.35183 -1.58674 6.75885 92 92 92
-1.34592 -1.58543 6.75328 93 93 93
-1.34003 -1.58412 6.74771 101 101 101
-1.33304 -1.58152 6.7366 107 107 107
-1.33154 -1.58543 6.75328 93 93 93
-1.32675 -1.58543 6.75328 78 78 78
-1.32305 -1.58674 6.75885 67 67 67
-1.31608 -1.58412 6.74771 60 60 60
-1.30805 -1.58021 6.73106 55 55 55
-1.30866 -1.58674 6.75885 44 44 44
-1.30386 -1.58674 6.75885 38 38 38
-1.29906 -1.58674 6.75885 35 35 35
-1.29427 -1.58674 6.75885 33 33 33
-1.28417 -1.58021 6.73106 37 37 37
-1.26792 -1.56605 6.67072 34 34 34
-0.790133 -1.57633 6.7145 23 23 23
-0.782799 -1.57117 6.69254 22 22 22
-0.777413 -1.56989 6.68707 21 21 21
-0.772036 -1.5686 6.68161 26 26 26
-0.767293 -1.5686 6.68161 22 22 22
-0.761308 -1.56605 6.67072 22 22 22
-0.756573 -1.56605 6.67072 21 21 21
-0.750615 -1.5635 6.65986 22 22 22
-0.745282 -1.56223 6.65445 25 25 25
-0.738158 -1.55716 6.63288 34 34 34
-0.73108 -1.55213 6.61145 38 38 38
-0.724048 -1.54713 6.59015 38 38 38
-0.717637 -1.54341 6.57427 36 36 36
-0.706037 -1.53846 6.55322 46 46 46
-0.698032 -1.53111 6.52189 52 52 52
-0.674678 -1.52021 6.47545 71 71 71
-0.670081 -1.52021 6.47545 70 70 70
-0.665485 -1.52021 6.47545 69 69 69
-0.660889 -1.52021 6.47545 72 72 72
-0.656293 -1.52021 6.47545 66 66 66
-0.651697 -1.52021 6.47545 65 65 65
-0.647101 -1.52021 6.47545 71 71 71
-0.642505 -1.52021 6.47545 72 72 72
-0.637909 -1.52021 6.47545 75 75 75
-5.84277 -1.61665 6.90715 34 34 34
-5.83294 -1.61529 6.90133 28 28 28
-6.1754 -2.24325 9.58428 38 38 38
-6.17583 -2.24588 9.59551 41 41 41
-6.16902 -2.24588 9.59551 43 43 43
-6.15499 -2.24325 9.58428 49 49 49
-6.141 -2.24062 9.57307 55 55 55
-6.11989 -2.23539 9.55073 65 65 65
-6.04958 -2.21216 9.45147 65 65 65
-6.02895 -2.20706 9.42969 80 80 80
-6.00841 -2.20199 9.40801 122 122 122
-6.01556 -2.20706 9.42969 143 143 143
-6.0158 -2.20961 9.44057 142 142 142
-6.0091 -2.20961 9.44057 149 149 149
-5.98858 -2.20452 9.41884 136 136 136
-5.9819 -2.20452 9.41884 124 124 124
-5.96834 -2.20199 9.40801 123 123 123
-5.96167 -2.20199 9.40801 124 124 124
-5.94815 -2.19946 9.39721 121 121 121
-4.3828 -1.86537 7.96979 53 53 53
-4.37288 -1.86355 7.96204 42 42 42
-4.35452 -1.85813 7.93887 36 36 36
-4.35311 -1.85993 7.94657 40 40 40
-4.32647 -1.85095 7.90819 43 43 43
-3.26834 -1.61393 6.89551 34 34 34
-3.25307 -1.61121 6.88391 36 36 36
-3.25484 -1.61938 6.91883 35 35 35
-3.24993 -1.61938 6.91883 35 35 35
-3.23681 -1.61529 6.90133 37 37 37
-3.22376 -1.61121 6.88391 38 38 38
-3.21077 -1.60716 6.86659 42 42 42
-3.20589 -1.60716 6.86659 43 43 43
-3.19566 -1.60447 6.85509 42 42 42
-3.18812 -1.60312 6.84935 42 42 42
-3.1806 -1.60178 6.84362 50 50 50
-3.16252 -1.59511 6.81513 59 59 59
-3.14982 -1.59114 6.79815 71 71 71
-3.13717 -1.58718 6.78125 86 86 86
-3.12459 -1.58325 6.76444 95 95 95
-3.11979 -1.58325 6.76444 107 107 107
-3.10473 -1.57803 6.74215 132 132 132
-3.0847 -1.57027 6.70899 142 142 142
-3.07994 -1.57027 6.70899 140 140 140
-3.07014 -1.5677 6.69801 122 122 122
-3.0679 -1.56899 6.7035 114 114 114
-3.06063 -1.5677 6.69801 116 116 116
-3.06089 -1.57027 6.70899 119 119 119
-3.05613 -1.57027 6.70899 119 119 119
-3.04637 -1.5677 6.69801 128 128 128
-2.44144 -1.53998 6.57956 58 58 58
-2.44069 -1.54246 6.59015 50 50 50
-2.42938 -1.54122 6.58485 37 37 37
-2.42081 -1.53874 6.57427 35 35 35
-2.40648 -1.53259 6.54798 32 32 32
-2.39036 -1.52526 6.5167 35 35 35
-2.37064 -1.51561 6.47545 33 33 33
-2.38111 -1.52526 6.5167 35 35 35
-2.37648 -1.52526 6.5167 37 37 37
-1.90643 -1.51561 6.47545 25 25 25
-1.90183 -1.51561 6.47545 28 28 28
-1.89724 -1.51561 6.47545 32 32 32
-1.89264 -1.51561 6.47545 33 33 33
-1.88805 -1.51561 6.47545 28 28 28
-1.88345 -1.51561 6.47545 23 23 23
-1.87885 -1.51561 6.47545 28 28 28
-1.87426 -1.51561 6.47545 30 30 30
-1.86966 -1.51561 6.47545 33 33 33
-1.86507 -1.51561 6.47545 33 33 33
-1.86047 -1.51561 6.47545 39 39 39
-1.85587 -1.51561 6.47545 42 42 42
-1.85128 -1.51561 6.47545 39 39 39
-1.84668 -1.51561 6.47545 42 42 42
-1.84208 -1.51561 6.47545 53 53 53
-1.83749 -1.51561 6.47545 63 63 63
-1.83289 -1.51561 6.47545 70 70 70
-1.34738 -1.57673 6.7366 86 86 86
-1.3415 -1.57544 6.73106 89 89 89
-1.33672 -1.57544 6.73106 89 89 89
-1.32975 -1.57285 6.72001 87 87 87
-1.33045 -1.57933 6.74771 87 87 87
-1.32457 -1.57803 6.74215 82 82 82
-1.32196 -1.58064 6.75328 73 73 73
-1.31391 -1.57673 6.7366 69 69 69
-1.30591 -1.57285 6.72001 64 64 64
-1.3065 -1.57933 6.74771 62 62 62
-1.30278 -1.58064 6.75328 51 51 51
-1.29799 -1.58064 6.75328 42 42 42
-1.2932 -1.58064 6.75328 34 34 34
-1.28311 -1.57414 6.72553 33 33 33
-1.26689 -1.56004 6.66529 35 35 35
-0.790133 -1.57156 6.7145 20 20 20
-0.777413 -1.56514 6.68707 27 27 27
-0.761308 -1.56131 6.67072 19 19 19
-0.75719 -1.56259 6.67616 19 19 19
-0.751226 -1.56004 6.66529 24 24 24
-0.745282 -1.55751 6.65445 28 28 28
-0.738158 -1.55246 6.63288 25 25 25
-0.73108 -1.54744 6.61145 24 24 24
-0.725216 -1.54494 6.60078 26 26 26
-0.719371 -1.54246 6.59015 26 26 26
-0.706602 -1.53504 6.55847 30 30 30
-0.679274 -1.51561 6.47545 55 55 55
-0.674678 -1.51561 6.47545 62 62 62
-0.670081 -1.51561 6.47545 65 65 65
-0.665485 -1.51561 6.47545 70 70 70
-0.660889 -1.51561 6.47545 70 70 70
-0.656293 -1.51561 6.47545 70 70 70
-0.651697 -1.51561 6.47545 69 69 69
-0.647101 -1.51561 6.47545 65 65 65
-0.642505 -1.51561 6.47545 65 65 65
-5.83294 -1.61039 6.90133 34 34 34
-5.82804 -1.61039 6.90133 37 37 37
-6.1754 -2.23644 9.58428 32 32 32
-6.17583 -2.23906 9.59551 33 33 33
-6.17626 -2.24169 9.60677 37 37 37
-6.16221 -2.23906 9.59551 45 45 45
-6.14819 -2.23644 9.58428 57 57 57
-6.12704 -2.23122 9.56188 62 62 62
-6.07061 -2.21312 9.48432 52 52 52
-6.0359 -2.20291 9.44057 91 91 91
-6.01532 -2.19784 9.41884 139 139 139
-6.0225 -2.20291 9.44057 145 145 145
-6.03669 -2.21056 9.47335 134 134 134
-6.01604 -2.20545 9.45147 129 129 129
-6.00933 -2.20545 9.45147 122 122 122
-5.98879 -2.20037 9.42969 126 126 126
-5.98209 -2.20037 9.42969 126 126 126
-5.98229 -2.20291 9.44057 120 120 120
-5.96184 -2.19784 9.41884 115 115 115
-4.38984 -1.8579 7.96204 71 71 71
-4.38418 -1.8579 7.96204 61 61 61
-4.38707 -1.86152 7.97756 48 48 48
-4.37288 -1.8579 7.96204 42 42 42
-4.35875 -1.85429 7.94657 40 40 40
-4.35311 -1.85429 7.94657 39 39 39
-4.33065 -1.84712 7.91583 43 43 43
-3.25034 -1.60498 6.87813 28 28 28
-3.25209 -1.61311 6.91298 28 28 28
-3.24444 -1.61175 6.90715 26 26 26
-3.23408 -1.60903 6.89551 30 30 30
-3.22105 -1.60498 6.87813 33 33 33
-3.20808 -1.60094 6.86083 38 38 38
-3.20589 -1.60228 6.86659 38 38 38
-3.19298 -1.59826 6.84935 43 43 43
-3.18812 -1.59826 6.84935 49 49 49
-3.1806 -1.59692 6.84362 61 61 61
-3.1678 -1.59293 6.8265 73 73 73
-3.15243 -1.58763 6.8038 84 84 84
-3.13978 -1.58368 6.78688 105 105 105
-3.12718 -1.57975 6.77003 127 127 127
-3.12237 -1.57975 6.77003 129 129 129
-3.10985 -1.57584 6.75328 122 122 122
-3.08976 -1.56808 6.72001 113 113 113
-3.08499 -1.56808 6.72001 114 114 114
-3.07517 -1.56551 6.70899 116 116 116
-3.07545 -1.56808 6.72001 115 115 115
-3.06565 -1.56551 6.70899 118 118 118
-3.07096 -1.57066 6.73106 119 119 119
-3.06115 -1.56808 6.72001 118 118 118
-3.04887 -1.56423 6.7035 122 122 122
-2.4434 -1.53654 6.58485 47 47 47
-2.44069 -1.53778 6.59015 40 40 40
-2.43798 -1.53902 6.59547 32 32 32
-2.42938 -1.53654 6.58485 32 32 32
-2.41887 -1.53284 6.569 29 29 29
-2.40264 -1.5255 6.53752 25 25 25
-2.37523 -1.51101 6.47545 30 30 30
-2.37064 -1.51101 6.47545 33 33 33
-2.38301 -1.52185 6.52189 29 29 29
-2.37648 -1.52064 6.5167 23 23 23
-2.37186 -1.52064 6.5167 27 27 27
-1.90183 -1.51101 6.47545 24 24 24
-1.89724 -1.51101 6.47545 21 21 21
-1.89264 -1.51101 6.47545 23 23 23
-1.88805 -1.51101 6.47545 28 28 28
-1.88345 -1.51101 6.47545 27 27 27
-1.87885 -1.51101 6.47545 28 28 28
-1.87426 -1.51101 6.47545 24 24 24
-1.86966 -1.51101 6.47545 22 22 22
-1.86507 -1.51101 6.47545 26 26 26
-1.86047 -1.51101 6.47545 32 32 32
-1.85587 -1.51101 6.47545 38 38 38
-1.85128 -1.51101 6.47545 46 46 46
-1.84668 -1.51101 6.47545 56 56 56
-1.32866 -1.56679 6.7145 85 85 85
-1.32935 -1.57325 6.74215 80 80 80
-1.32348 -1.57195 6.7366 75 75 75
-1.32087 -1.57454 6.74771 67 67 67
-1.31391 -1.57195 6.7366 54 54 54
-1.30591 -1.56808 6.72001 43 43 43
-1.30758 -1.57584 6.75328 36 36 36
-1.30386 -1.57714 6.75885 35 35 35
-1.29906 -1.57714 6.75885 36 36 36
-1.28417 -1.57066 6.73106 26 26 26
-1.26586 -1.55405 6.65986 28 28 28
-0.761308 -1.55658 6.67072 25 25 25
-0.756573 -1.55658 6.67072 25 25 25
-0.750005 -1.55278 6.65445 24 24 24
-0.744072 -1.55026 6.64365 24 24 24
-0.73756 -1.5465 6.62751 23 23 23
-0.73108 -1.54275 6.61145 30 30 30
-0.709445 -1.53654 6.58485 42 42 42
-0.670081 -1.51101 6.47545 75 75 75
-0.665485 -1.51101 6.47545 74 74 74
-0.656293 -1.51101 6.47545 72 72 72
-0.651697 -1.51101 6.47545 73 73 73
-0.647101 -1.51101 6.47545 74 74 74
-0.642505 -1.51101 6.47545 74 74 74
-6.16734 -2.22184 9.55073 37 37 37
-6.1754 -2.22964 9.58428 35 35 35
-6.17583 -2.23225 9.59551 32 32 32
-6.17626 -2.23487 9.60677 36 36 36
-6.16221 -2.23225 9.59551 47 47 47
-6.14819 -2.22964 9.58428 55 55 55
-6.1342 -2.22703 9.57307 64 64 64
-6.09178 -2.21408 9.51741 56 56 56
-6.04986 -2.20129 9.4624 74 74 74
-6.0292 -2.19621 9.44057 108 108 108
-6.03642 -2.20129 9.4624 122 122 122
-6.05069 -2.20895 9.49533 123 123 123
-6.02996 -2.20383 9.47335 136 136 136
-6.03022 -2.20639 9.48432 131 131 131
-5.9957 -2.19621 9.44057 122 122 122
-5.99591 -2.19874 9.45147 108 108 108
-5.99613 -2.20129 9.4624 109 109 109
-5.96871 -2.19368 9.42969 114 114 114
-4.39411 -1.85405 7.96979 64 64 64
-4.38845 -1.85405 7.96979 59 59 59
-4.38707 -1.85586 7.97756 52 52 52
-4.37714 -1.85405 7.96979 43 43 43
-4.36299 -1.85045 7.9543 43 43 43
-4.35734 -1.85045 7.9543 38 38 38
-4.33762 -1.84686 7.93887 42 42 42
-3.24934 -1.60685 6.90715 37 37 37
-3.23898 -1.60414 6.89551 35 35 35
-3.23136 -1.60279 6.88971 34 34 34
-3.22105 -1.60009 6.87813 37 37 37
-3.20808 -1.59607 6.86083 38 38 38
-3.20321 -1.59607 6.86083 36 36 36
-3.19298 -1.5934 6.84935 35 35 35
-3.18546 -1.59207 6.84362 38 38 38
-3.1806 -1.59207 6.84362 49 49 49
-3.1678 -1.58808 6.8265 61 61 61
-3.15506 -1.58412 6.80946 73 73 73
-3.14238 -1.58018 6.79251 84 84 84
-3.13236 -1.57756 6.78125 93 93 93
-3.12755 -1.57756 6.78125 99 99 99
-3.11757 -1.57495 6.77003 118 118 118
-3.1025 -1.56975 6.74771 141 141 141
-3.09771 -1.56975 6.74771 131 131 131
-3.08783 -1.56717 6.7366 116 116 116
-3.08559 -1.56846 6.74215 111 111 111
-3.07827 -1.56717 6.7366 116 116 116
-3.08364 -1.57235 6.75885 122 122 122
-3.07123 -1.56846 6.74215 121 121 121
-2.44537 -1.5331 6.59015 57 57 57
-2.44266 -1.53434 6.59547 52 52 52
-2.43798 -1.53434 6.59547 43 43 43
-2.42938 -1.53187 6.58485 40 40 40
-2.41887 -1.52818 6.569 38 38 38
-2.40456 -1.52207 6.54274 33 33 33
-2.39226 -1.51722 6.52189 34 34 34
-2.37064 -1.50642 6.47545 33 33 33
-2.38491 -1.51843 6.52709 34 34 34
